-3.820444 -0.147604 2.575511
-1.969154 -0.948781 0.572817
-2.681433 -1.023907 2.011365
1.085343 -1.063168 -0.685533
1.435950 1.335293 -0.794376
1.444801 0.318834 -0.804374
-0.205011 -0.883778 -0.286569
1.104377 -0.493968 -0.703147
0.494917 0.453220 -0.495325
-3.382578 1.077125 2.496846
0.939776 -0.791299 -0.658482
-0.955992 1.461607 -0.036318
1.170219 0.107511 -0.716187
2.059568 0.293852 -1.023504
-0.605664 -0.607027 -0.129662
-1.154659 -1.042888 0.030736
0.369667 -0.696166 -0.460351
0.270107 -0.286767 -0.420620
-3.642475 0.843288 2.657123
0.567863 -0.641463 -0.523062
-3.455602 -0.511462 2.591660
-3.640304 -0.462866 2.664467
-3.675003 0.888678 2.629043
-3.785850 -1.169943 2.637512
1.358843 -1.234185 -0.789435
-2.373913 -1.333981 1.737805
-3.832614 1.260966 2.608757
0.351909 0.402402 -0.455340
-0.681304 -0.257861 -0.128933
-3.504437 1.241331 2.624243
-3.616554 0.790470 2.644703
-1.941143 0.543495 0.302090
2.620839 1.294702 -1.187397
1.065112 0.240049 -0.675311
-3.804471 -0.745701 2.629781
-3.873080 -0.944088 2.603499
-1.693982 -0.176694 0.239757
-3.785261 0.600506 2.632257
-4.019981 -0.580950 2.598356
-1.932863 -0.248899 1.102134
-1.440233 1.317169 0.166726
-3.875284 -0.635153 2.614707
0.700863 1.028851 -0.577914
0.910402 -0.631630 -0.642772
-4.246264 0.572048 2.579499
-4.093539 -1.326799 2.580319
0.430199 0.937691 -0.492983
-1.949419 -0.098916 1.104629
-4.247328 0.698709 2.583694
-3.685740 -0.496053 2.669383
-0.097359 1.453029 -0.313308
-0.988218 1.186248 -0.007714
-4.135261 0.916684 2.579758
1.040013 1.406636 -0.655563
-3.830435 -0.042546 2.637744
-4.194284 0.070259 2.587901
-3.615718 -0.700683 2.671191
-1.567668 1.312170 1.086828
-3.685822 -0.834120 2.669262
-2.002814 -1.102875 1.219606
1.295501 -0.476562 -0.772838
-3.651938 -1.302046 2.688520
2.532749 1.438611 -1.175302
-3.727791 -0.787639 2.716011
-3.722230 0.836517 2.639333
-3.692560 -0.014710 2.682664
1.184029 0.308714 -0.702547
1.941253 0.564593 -0.972575
0.979578 -1.074991 0.178405
-1.568397 0.167816 1.013943
2.042610 0.331974 -0.995213
2.169517 -0.090337 -1.039776
-3.864697 0.407489 2.643039
0.084628 -0.814524 -0.338603
1.111066 0.476789 -0.691746
-3.716236 -1.004400 2.692564
2.072065 0.817529 -0.925921
-3.796689 1.208619 2.625791
-0.984983 0.209021 -0.010671
1.165016 -0.229453 -0.687474
-2.572889 0.685919 1.964718
-3.979505 -1.072331 2.598082
0.365779 1.426532 0.357385
0.395939 -1.220653 0.369334
1.045662 0.243492 0.174708
2.131157 -0.032828 -0.139697
-3.509098 -0.525127 2.589168
-2.862888 -0.801218 2.132445
-3.676127 0.168099 2.594205
1.929811 -0.921229 -1.458537
-1.373404 -0.823241 -0.412554
-0.701461 1.450544 -0.145245
-3.692227 0.892550 2.657927
-3.971767 -0.206302 2.573956
-0.163506 0.438028 -0.798881
-3.830827 -1.263157 2.659166
1.916247 -1.132990 -1.480764
1.469362 -0.797822 -1.296774
-3.498543 0.577672 2.606391
0.805746 1.329154 -1.094048
1.508200 -0.954883 -1.340459
-1.847696 -0.255292 -0.109945
1.714802 -1.357260 -1.406476
-3.915230 -0.437508 2.574255
-4.033098 -0.164382 2.570583
-3.831943 -0.599730 2.574665
1.808082 -0.534213 -1.435114
1.558206 -0.272570 -1.317021
-3.695703 -0.743835 2.680892
-1.024419 -0.129357 -0.016724
-3.871556 0.477642 2.570806
1.801212 0.691080 -1.437552
-0.359650 -0.307961 -0.716263
-3.545454 0.252354 2.622155
1.323929 -1.200405 -1.273669
-0.769235 -1.218318 -0.598694
-3.673776 1.219220 2.619503
-3.784939 -0.455549 2.628073
0.714597 0.869577 -0.591864
-3.801141 0.912253 2.604856
-3.859423 -1.190449 2.606825
-1.910912 0.659956 0.628354
-4.053693 0.147986 2.571038
-3.767002 -0.727688 2.671774
0.397055 -1.113262 -0.980263
1.994775 -1.280805 -1.496888
-1.299121 -0.440731 0.060107
1.235035 -0.308526 -1.253943
-3.670113 1.262576 2.624553
2.903029 0.838938 -1.781296
-3.692007 -0.685643 2.643389
-2.506130 -1.334356 1.884532
-2.065885 -1.393346 1.141435
3.253879 -1.546322 -2.877518
0.778996 -0.026505 -1.053265
-2.029068 0.235135 0.511669
-3.835467 -0.905896 2.613069
-3.546614 -1.440796 2.633588
-1.288858 0.974376 0.080817
-3.674599 -0.809072 2.646903
-3.511049 -1.374676 2.624411
-3.681650 -0.019602 2.646272
-2.042070 0.155708 0.893420
2.654152 1.425673 -1.718768
-0.975905 -1.215391 -0.032966
-1.737257 1.466990 1.023425
-3.430098 -0.587640 2.534601
-3.571629 0.896671 2.669954
2.827301 0.113700 -1.734714
-3.793272 -0.345937 2.594068
-2.103374 0.373154 1.283213
1.509460 1.469968 -0.848139
-3.725894 0.470129 2.606748
-3.687147 1.376434 2.631666
-3.729196 -1.322765 2.645550
-3.724008 -0.596412 2.647045
-3.202422 1.121455 2.368754
-3.828923 0.945365 2.609573
-3.903357 -0.808038 2.602528
-3.527003 1.372085 2.640972
-4.161278 -0.252271 2.572260
-3.636577 -1.406805 2.667080
-3.402575 1.109957 2.507537
-0.858833 1.302153 -0.141462
-2.708592 0.183779 2.026936
-3.680475 0.897076 2.593490
0.715656 1.046217 -1.049433
-0.469267 -0.161563 -0.421728
0.173242 1.073675 -0.908965
-3.884943 -0.173023 2.611425
-3.682929 0.197835 2.662951
1.825055 -0.432034 -1.419297
-3.507210 0.302404 2.599829
3.351023 -1.290057 -4.186989
-3.680461 0.040856 2.670858
-2.769526 0.563178 2.058716
-3.246844 0.993505 2.397761
-0.678797 -0.165433 -0.129662
-3.859640 -1.259066 2.666339
1.665331 -0.020540 -1.379592
-3.750188 0.611942 2.649019
-0.231523 0.538662 -0.277522
1.683982 -0.561409 -1.391827
1.869053 -0.307883 -1.451578
-3.538745 0.905545 2.634748
-3.802522 -0.925938 2.605399
-0.568449 -0.596246 -0.663884
-1.994531 1.309193 0.244967
-3.622688 -0.952048 2.613682
1.054122 -0.278730 -0.686294
1.275936 0.879154 -0.766459
-0.218053 1.284062 -0.279508
0.695313 1.085029 -0.587665
-4.099854 0.736020 2.573482
-2.036735 -0.926543 0.312072
2.058164 0.478825 -1.509244
-0.624087 0.805555 -0.152042
-3.611652 -0.356378 2.654179
-3.711923 0.685732 2.667819
-3.449584 -0.012228 2.572605
0.894355 -0.887254 -0.640739
-2.138016 1.046420 -0.147570
-3.275794 0.164768 2.424799
-3.674176 -0.099930 2.635895
1.303014 -1.165503 -0.788330
0.843280 0.943999 -0.625854
-3.800216 -0.377174 2.611049
-1.730404 1.015982 0.204813
-4.123971 -0.607353 2.574636
-1.718268 1.060405 0.208325
-3.768967 0.295033 2.622937
-3.597762 -0.502046 2.680419
-1.971048 -1.447790 1.085447
-3.665206 0.830527 2.625267
1.004592 0.243326 -0.680622
1.133256 -1.425829 -0.722656
-3.578723 1.216168 2.663750
-1.406747 0.638912 0.144059
-3.398039 -0.333071 2.507857
-3.877304 0.158225 2.601276
-1.465923 -0.257266 0.948286
-0.957286 -0.936218 -0.041281
0.633477 -0.331546 -0.555605
0.017927 0.521710 -0.359756
-3.697850 0.312737 2.664024
-3.721704 -0.831117 2.646909
-0.127486 0.284059 -0.262863
-3.649968 0.147996 2.646361
-0.724548 0.018718 -0.091422
-4.142704 1.039854 2.576157
1.341313 -0.120536 -0.783690
-3.832553 -0.286643 2.624480
-3.166826 0.569672 2.346909
0.250195 0.379369 -0.407059
2.177930 -0.660350 -1.059426
-3.098915 -1.264851 2.296570
-3.856926 -0.284838 2.583246
0.360571 -0.828637 -0.465222
-3.869864 0.626311 2.616845
-1.414461 -0.148778 0.930877
-1.725734 0.483429 0.210078
1.071063 0.547684 -0.697498
-1.295277 1.318430 0.071671
-3.775545 -0.188907 2.603090
-3.055821 -0.636531 2.287075
-1.514344 -1.458927 0.952627
0.426280 -1.075494 -0.481359
1.010736 0.738987 -0.672740
-4.167629 0.417561 2.577916
-3.706770 -0.047784 2.657302
2.390325 0.127846 -1.133293
0.590277 -0.174078 -0.485484
0.750556 -0.340851 -0.582187
1.711215 1.186093 -0.885728
-3.531395 0.667753 2.641323
-3.748632 0.896061 2.655750
-3.547368 -1.421062 2.666319
-4.127924 -0.466133 2.585230
-2.532229 0.730808 1.900679
-4.189991 0.898785 2.580660
0.869101 0.876608 -0.629758
-1.595216 0.119986 0.179263
1.726757 0.492700 -0.893400
-3.811197 -1.375945 2.646590
-3.678203 1.413890 2.663402
-3.245011 -0.518678 2.427644
1.113694 -0.096977 -0.707955
-2.994499 -1.035712 2.227713
0.579124 1.278844 -0.536435
1.495197 1.274770 -0.815208
-2.449926 -1.235161 1.849571
-4.135285 -1.034443 2.594074
0.961983 -1.364075 -0.620666
1.008105 1.348331 -0.659863
2.114223 0.830422 -1.024770
-1.595647 0.458338 0.172598
-3.821234 -0.404972 2.697900
-2.045905 -0.158351 0.322773
-4.265925 -1.305247 2.583090
-2.063147 -1.252316 1.214597
0.630392 -0.433357 -0.511510
-3.540182 -0.146336 2.649174
0.561530 -0.349032 -0.487382
1.418946 0.559544 -0.768357
-0.450665 -0.603890 -0.114120
-3.812113 0.552702 2.637335
-3.866810 -0.729433 2.673714
1.567651 1.318557 -0.855529
-3.583802 -0.016658 2.688555
1.795655 -0.942843 -0.891498
-3.553597 -0.067841 2.662253
-3.732791 -0.458220 2.703761
-3.983716 -0.065124 2.620670
0.499428 0.868991 0.320355
-3.932851 0.678633 2.641800
-1.033431 -1.140566 0.867694
-2.467985 -0.961816 1.879447
-4.070943 1.270663 2.621143
1.336770 -0.666991 0.064290
-0.742613 -0.033984 0.751484
0.918107 1.470027 -0.654879
-2.364268 0.573703 1.485494
1.868303 1.071880 -1.454464
-3.914008 1.439018 2.572997
-0.981390 1.250788 -0.537662
-3.818918 0.629633 2.602255
-1.845946 -1.459586 0.216479
0.317148 0.614307 -0.954055
-0.330469 -0.258387 -0.258206
0.243489 0.078403 -0.881764
-3.756510 -0.093214 2.646465
-3.191219 -0.915550 2.356979
-3.566255 0.283929 2.669230
0.369532 0.399293 -0.955252
-3.746405 0.178781 2.607907
-3.569472 0.188307 2.648498
0.758982 -0.418531 -0.605686
2.455137 -0.670257 -1.637869
0.501239 -0.252171 -0.969875
0.940280 1.046398 -1.130365
-4.024997 0.724679 2.574561
-3.856930 -0.175757 2.574250
-3.625321 0.060023 2.637582
-3.735340 -0.038815 2.619648
-3.718706 -1.292070 2.622196
-0.633639 1.026261 -0.644510
-3.545364 1.441537 2.633541
-1.199231 -0.117726 0.039170
-1.854620 -1.245601 1.114547
0.510556 0.113259 -1.002425
-3.233684 0.558637 2.391831
-1.574990 -0.294964 0.249173
-3.441279 -1.439100 2.624235
0.114432 0.537473 -0.889300
-4.115623 -0.808873 2.570890
-0.261970 0.306793 -0.737635
-1.708350 0.620973 0.178905
-4.182250 -0.797909 2.571313
0.386063 -0.065728 -0.958099
-3.799009 0.990723 2.571560
-3.662687 0.609089 2.637134
0.906234 1.138343 -1.093289
-0.871762 -0.597417 -0.575735
-3.908680 0.926648 2.571487
-3.861746 0.678675 2.606927
-3.535916 0.442474 2.635977
-0.643828 0.071039 -0.133748
0.859671 0.194070 -1.134342
-0.809809 -0.644953 -0.589027
-3.196520 0.840224 2.363863
-3.910898 -1.014782 2.571569
-3.970785 -0.829598 2.585983
-0.693259 -1.464638 -0.118642
1.322493 -0.803110 -1.248896
0.498007 -0.030073 -1.011840
-3.780962 1.074234 2.595078
-3.747296 -0.042608 2.636550
1.442891 1.301973 -0.823571
0.926650 0.623461 -0.652740
-1.998946 0.941152 1.041099
-3.162202 1.100539 2.332107
-3.766963 -0.464658 2.629830
-3.768145 1.360354 2.634633
-4.015025 -0.826974 2.632322
-3.809689 -1.182418 2.616277
0.491839 -1.138945 -0.515092
-0.250757 -0.759564 -0.752373
-3.754365 0.668091 2.662738
0.124962 -1.214888 -0.887547
-1.614758 -1.458385 0.466183
-3.918615 1.074444 2.624950
1.551419 -1.208859 -1.356517
-0.844215 0.824334 -0.077088
0.476745 -0.876997 -0.758480
-4.019825 -0.582877 2.573545
-2.624727 1.432345 1.960553
0.189410 0.877570 -0.914175
2.338413 -0.385097 -1.607975
-0.544832 -1.014882 -0.191218
-1.575410 -0.248295 0.168010
0.095121 1.356620 -0.353926
0.380279 -0.157929 -0.915692
-4.052717 -1.296338 2.577379
-3.572375 0.551717 2.671243
-0.792154 -0.886503 -0.377256
0.237961 -0.810993 -0.433184
-3.434880 0.449221 2.530928
-3.661702 -0.271833 2.648214
1.380619 -1.157350 -0.810561
-3.638978 -0.418082 2.649873
0.701780 -1.147539 -1.017567
1.105060 -0.889483 -1.176560
-4.032675 -0.743029 2.581819
-0.072334 -0.659204 -0.329893
0.889285 -0.349274 -1.125471
0.799557 -1.422589 -0.612254
0.312461 1.074943 -0.766425
-3.811437 0.839892 2.624380
-0.825917 1.366133 -0.088220
-3.961908 -0.144333 2.602335
-3.961621 -0.548612 2.574542
-3.535128 -0.335003 2.625962
-3.758815 -0.485711 2.653585
2.311104 0.165183 -1.079620
-3.768583 -1.354085 2.629538
-0.440934 0.141816 -0.690301
0.099333 -0.815507 -0.875784
-0.019686 1.340001 -0.798514
-3.936388 -1.244030 2.644317
0.191050 -0.556490 -0.393904
-3.882291 0.986921 2.613810
0.721246 0.112282 -0.589590
0.022653 -0.830719 -0.848187
-3.612775 -1.297839 2.678370
-3.269247 -0.557288 2.418869
0.821672 0.706737 -0.589437
-3.898145 1.034777 2.613992
1.194248 0.231443 -0.744591
-3.853823 -0.710153 2.633906
-3.885342 -0.996912 2.636165
-3.560319 -0.704150 2.645204
0.878638 1.437662 -0.635960
0.117916 -0.144693 -0.398127
-3.673579 -1.262913 2.674148
0.632064 -0.366384 -0.557143
0.007268 1.090309 -0.285650
-3.688076 -0.123343 2.627414
0.522487 -0.107774 -0.517860
1.174979 -0.498153 -0.729434
-1.191916 1.382953 0.035307
1.389487 -1.429311 -0.756237
-1.043524 0.113403 -0.019540
-4.156389 0.738273 2.576250
-3.788046 0.792526 2.639275
1.610454 0.048711 -0.882229
0.737103 -0.671076 -0.593383
-3.572003 -0.708332 2.682972
0.622987 -0.290316 -0.549350
-3.832929 0.658786 2.615494
-3.822817 -0.419444 2.657264
1.438593 -1.407812 -0.816819
0.910693 0.127157 -0.646348
-0.397563 0.997009 -0.225525
-1.966748 1.182523 1.088531
-4.102153 -0.997583 2.577065
-3.233068 -0.573191 2.387914
-0.304763 1.298493 -0.209402
-4.171445 -0.656474 2.577284
-3.403867 1.172847 2.516570
-0.512857 0.436258 -0.175698
-2.120803 1.480526 0.720942
-0.026582 1.173699 -0.277927
-3.990460 -0.819232 2.625837
-3.962024 -0.094105 2.592204
0.167768 1.325096 -0.321371
-3.805756 -0.075416 2.643071
-3.900990 -1.210550 2.652331
-1.093696 0.425314 0.833352
-3.766971 1.135033 2.624528
0.475172 -1.267631 -0.501212
-3.716338 0.574938 2.683589
-0.221231 -0.381073 -0.279474
-0.262943 -1.096080 -0.237938
-2.758622 0.261599 2.067792
0.262564 -0.423582 -0.430654
-3.568827 -0.329784 2.676345
-3.882628 -0.290654 2.618944
0.915918 -0.198114 -0.644352
1.044220 -0.660323 -0.689111
-3.742054 0.495295 2.644102
-3.961822 0.731661 2.594744
-0.534602 -0.784063 -0.167351
-0.198101 -0.474285 -0.272051
-4.039048 0.486620 2.607188
-1.837460 -1.020761 0.253741
-4.068460 0.885332 2.588649
-3.554881 -0.123468 2.704235
-3.859348 1.224072 2.631656
0.620643 -0.733182 -0.526825
0.571898 0.189933 -0.522016
0.502012 -1.320698 -0.458340
-0.867006 -1.085106 -0.057849
-3.661909 0.534722 2.668924
-4.045151 0.739384 2.597701
1.810842 0.188003 -0.883822
1.762286 -1.102531 -0.902616
-3.913286 -0.139255 2.637918
-3.835452 0.897222 2.636247
1.749092 -0.785474 -0.918581
0.588224 -1.006080 -0.495709
-3.625058 0.619898 2.670021
-3.587317 1.069801 2.663520
0.400583 0.440084 -0.449367
-3.942783 -0.988227 2.604019
-1.879744 0.548929 1.137096
-4.059260 -0.680783 2.590635
2.073197 0.216058 -0.957258
0.873468 0.149348 -0.601480
-4.009735 0.629291 2.615311
0.935999 -0.158553 -0.606154
1.234268 0.908291 -0.747455
-1.311989 1.387239 0.135955
-0.386742 -0.692375 -0.221647
0.812270 -0.303245 -0.591844
-3.960429 -1.265385 2.609247
-3.909926 0.104203 2.633231
1.917784 1.127195 -0.956935
-3.691930 0.794009 2.667263
-3.832074 -1.133966 2.650320
1.772431 0.812897 -0.890473
-3.633735 -0.888215 2.716675
-1.537110 0.260725 0.977589
1.356585 1.204471 -0.729443
-3.492983 0.946545 2.646403
-3.819391 0.645706 2.661704
-0.315428 0.804005 -0.213127
-3.717436 0.348943 2.704618
-1.754860 -1.007621 1.052243
1.785100 0.695831 -0.111436
0.310569 0.524072 0.406356
0.505583 1.171160 0.333927
-4.017438 -0.466060 2.650656
-3.602238 -1.029852 2.684283
-3.693535 1.132967 2.660284
4.924938 -0.908652 -2.651511
0.609617 -0.314937 0.301924
0.234577 -0.243367 0.435842
-0.255871 -1.015570 -0.445754
-3.316134 -1.047813 2.441267
-2.043653 -0.809612 1.123063
-3.481306 0.293485 2.617077
-1.956703 -0.783106 0.157690
-3.775576 1.000721 2.571918
-3.721748 -0.013221 2.638874
-0.680426 -0.414274 -0.142004
1.383826 -1.183287 -1.267873
0.295543 0.855372 -0.946131
0.684924 1.173109 -1.075798
-3.942103 -1.016488 2.570211
0.698344 -0.168411 -1.077370
1.114846 -1.112746 -0.701041
-1.333975 -1.448515 0.086280
-3.527280 0.420965 2.597190
1.092778 -0.635455 -1.214121
-3.980314 -1.255343 2.576539
-3.692661 0.247461 2.630253
-4.013151 0.147777 2.578757
-3.587336 1.176661 2.650629
-0.621581 1.460300 -0.178372
-3.453403 0.651601 2.537107
-1.416653 0.327070 0.100118
-0.574784 0.020393 -0.140536
-3.676741 -1.147241 2.650502
1.599673 -0.573056 -0.877050
-3.621716 -0.138402 2.614899
-3.832008 1.434477 2.583324
-3.775380 -0.916542 2.596879
-0.381195 -0.061531 -0.713809
-3.931957 -0.476738 2.603015
1.954739 0.681304 -1.448427
-1.882775 -0.356321 0.256033
1.011361 -0.802316 -1.176025
-3.708181 -0.908997 2.645759
1.028181 0.185687 -1.182932
-3.968387 -1.278348 2.571306
-0.176573 1.368185 -0.296884
-3.548352 0.297918 2.615360
-3.323686 -1.318956 2.459368
-0.774757 -0.628112 -0.598035
-3.702452 -0.359726 2.715888
-1.038271 -0.949557 -0.482015
-3.892367 -0.789875 2.622176
0.180249 -1.076308 -0.896008
2.245406 -1.289909 -1.583117
1.494357 0.156276 -0.821476
-3.589763 1.417434 2.653406
-2.940197 -1.275810 2.182491
-4.074502 -1.203470 2.571980
1.509524 -0.532613 -1.341004
-3.575137 0.206999 2.641724
-2.172666 0.763032 0.095649
-1.775246 1.056909 0.961132
1.172807 -0.527053 -1.227385
1.178912 -1.149080 -0.745492
-0.207538 -0.151487 -0.783958
-2.021996 -1.219952 0.913196
0.731886 0.213235 -1.075635
1.821145 -0.828593 -0.945002
1.151231 0.535805 -1.204745
-1.332083 0.349626 0.084211
-3.576063 1.029988 2.632696
0.122891 1.151621 -0.888997
-3.431514 -0.290041 2.525566
2.526387 -1.155844 -1.607936
-0.461041 -1.192100 -0.698747
-3.183746 0.985561 2.347521
0.853235 1.460341 -0.631727
0.807479 0.004622 -0.624846
-3.661952 0.148225 2.622164
-4.159433 -0.030525 2.572893
-3.704122 0.294117 2.713529
-0.741664 -1.438099 -0.112520
1.780727 1.406521 -1.404040
0.070124 0.270554 -0.379569
-3.960044 1.011188 2.574066
1.036031 0.031824 -1.117425
0.892005 -1.475218 -1.090478
-1.059862 -0.839073 -0.008249
-0.759982 -0.482605 -0.124619
-3.898904 -0.344827 2.577698
-1.776273 1.155959 0.226254
-4.125309 1.220634 2.573713
1.328790 -0.896030 -1.274588
0.051930 0.722924 -0.364806
-1.682276 0.455676 0.281019
-3.457364 -0.580944 2.592107
-3.775179 -1.267055 2.626235
-3.626680 0.873481 2.621760
-3.838269 -0.730863 2.650416
-0.908282 -0.745688 -0.041549
1.940516 0.793409 -1.135412
-1.784373 0.477017 0.222377
-3.447671 0.745045 2.544288
-3.458817 -0.029098 2.604990
-0.546509 -1.461884 -0.164440
-2.726565 -0.812469 2.032043
1.612130 0.997796 -0.853052
-3.683374 -0.609609 2.682142
-2.063037 -0.752903 0.313734
-4.158488 0.011548 2.578753
-3.555715 0.998552 2.631581
-0.541129 0.708839 -0.169368
-2.547219 1.011671 1.905102
-1.304904 0.067415 0.105053
-3.253547 0.635301 2.409743
-1.101296 -1.459528 0.043386
0.671381 1.305129 -0.569907
1.198082 0.851336 -0.740085
-3.756848 -1.306951 2.634966
-4.201775 0.244284 2.575650
-3.546875 -0.648189 2.694140
0.874896 -1.229758 -0.645709
-1.375077 0.043767 0.093725
1.173908 -0.880239 -0.741703
-3.803151 -0.381230 2.637817
-3.267015 -0.959852 2.420474
-0.463588 -0.271382 -0.200303
0.777396 -0.512599 -0.599286
-3.708138 0.107959 2.674035
0.336505 -1.164196 -0.455199
0.693320 -1.097912 -0.571868
-3.520004 -0.018576 2.639143
-0.470766 -0.806203 -0.196302
-3.562792 -0.506991 2.678500
-2.681052 0.660627 2.001728
-4.003379 -0.068295 2.576676
-0.526839 1.355429 -0.172058
-3.642087 -0.971401 2.641180
1.940710 1.420265 -0.972263
-4.005460 -0.719738 2.580625
-2.193549 -1.180112 1.533146
-3.815932 -0.333819 2.625102
1.138642 -0.464252 -0.711206
1.655942 -0.175285 -0.865385
-4.017460 0.684311 2.582863
-3.817685 1.084536 2.610944
1.617767 0.396337 -0.852516
-1.968080 0.929418 0.388750
-3.799855 -0.226552 2.613808
-3.735138 0.536153 2.664215
-2.953393 -1.277622 2.215664
0.542819 0.724713 -0.513270
-2.034555 -0.880295 1.234560
-4.061602 -0.788132 2.653133
0.091874 -1.086358 -0.363293
1.267306 -0.368162 -0.736783
-3.213327 1.175809 2.397787
-3.855243 0.732195 2.602507
0.480807 -0.080231 -0.492295
-1.193163 -1.063505 0.871204
-2.625677 -0.005681 1.974158
-3.472145 1.345403 2.627603
-2.090390 -0.769701 0.362448
1.036314 -0.585415 -0.677774
2.072909 1.064268 -1.017095
1.660130 -0.365736 -0.870632
-3.206297 -0.630523 2.384334
-3.586658 1.283302 2.661697
-4.159770 0.686367 2.583482
0.049184 0.646296 -0.139809
0.986422 1.285940 -0.649334
0.092218 -1.419113 -0.366307
-3.614997 0.051450 2.678256
-3.933334 -0.772208 2.661335
-3.786673 -1.237210 2.654940
-2.744369 -0.721667 2.055918
-3.782626 -0.074509 2.679678
-3.937003 -0.025747 2.655212
-0.073482 -1.072472 -0.304054
-4.037954 -0.211205 2.605959
0.347650 -0.631568 -0.435321
1.223814 -1.219316 0.104966
-0.217175 -0.810172 0.548111
2.591637 -0.065608 -1.118763
-3.945650 0.979196 2.611756
0.513869 0.333192 0.333842
1.014019 -0.425583 0.160260
-0.256920 1.400301 -0.234583
1.463709 1.408309 0.023131
-3.530261 0.411245 2.685780
1.147779 1.217927 0.135547
-3.736975 0.239862 2.689736
-3.016333 1.046453 2.354816
-3.763708 1.304373 2.681574
1.526523 1.291780 -0.010734
-2.109075 -1.291544 1.333316
1.923391 -0.201484 -0.099429
-2.246784 -0.458287 1.549596
-1.207628 1.427615 -0.319667
-3.722901 -0.706134 2.613650
1.540716 1.362837 -0.864917
-3.739358 -1.378368 2.589327
-3.529334 0.686361 2.585037
-2.946769 0.052971 2.184223
-3.725122 -1.041868 2.651412
-3.833655 -0.137122 2.593212
-3.573597 1.441514 2.595825
0.039253 0.296801 -0.863648
-1.371433 -1.101260 0.089100
-1.971579 1.383222 1.094977
-3.872995 0.067368 2.594597
2.083112 1.373649 -1.494643
-3.738150 1.024205 2.613137
0.837303 -1.286973 -1.126583
-2.627336 -0.825272 1.996632
-3.726013 0.794342 2.600963
-0.131780 -0.597660 -0.812339
-3.818358 -0.906248 2.634523
-3.147738 0.691671 2.324920
0.013863 0.693282 -0.800464
-3.652283 -0.544315 2.656871
-3.386815 0.829162 2.492427
-3.497752 -0.181004 2.571347
-3.911079 1.421546 2.575555
-3.666124 -0.676637 2.642887
-4.048957 -0.038807 2.570700
-3.877668 -0.265104 2.577733
-3.881713 -1.407245 2.592716
-0.266926 -0.555272 -0.754004
-2.104127 -1.182082 0.322438
-3.588803 1.441182 2.629318
-3.992956 -0.284771 2.571393
-3.933097 0.880829 2.579363
0.741670 0.845071 -1.090837
-0.514893 -1.451078 -0.172048
-0.790328 -0.202048 -0.594976
-3.732359 0.696481 2.663325
-3.819852 -0.267671 2.611485
-3.597859 -0.413439 2.621472
0.927865 0.069865 -1.125022
-3.959361 -0.489225 2.574928
-1.118427 -1.031443 0.006997
-4.234621 0.416810 2.571026
-3.907192 -0.183415 2.608520
-4.004238 0.382460 2.575555
-2.741311 -1.367063 2.036617
0.683136 -0.454385 -1.075927
0.283715 0.286892 -0.941927
-2.515063 0.539221 0.454238
-3.718233 1.180739 2.613093
0.984087 0.876404 -1.173671
0.510801 0.883285 -1.017039
-2.321315 -1.434661 0.395683
0.736446 1.010261 -1.089921
-0.623055 -0.182978 -0.159611
-1.317066 -1.244321 0.084430
0.882112 -0.395234 -1.137435
-0.858562 -1.079496 -0.575296
-3.736009 1.280980 2.621306
-4.063089 1.201796 2.588101
-3.935683 1.424810 2.571960
1.502626 -1.090352 -1.338009
-3.852861 -1.128998 2.618770
1.259038 -1.127293 -1.255327
2.973779 -0.292386 -1.996620
-2.621968 0.738110 1.954341
-2.061026 0.740713 0.968621
-0.282110 1.264509 -0.762522
-2.148150 -0.632243 1.433676
-3.768753 0.945192 2.622001
-0.289836 -0.970151 -0.746750
-3.777741 1.101588 2.596277
-1.941060 1.410932 0.928644
0.705687 1.075329 -0.567907
-3.623362 0.104659 2.702200
-3.766852 -1.114913 2.619932
0.151751 -1.339686 -0.890263
-0.407840 1.293500 -0.098571
0.407298 -0.324910 -0.488325
2.366480 -1.165190 -1.529042
1.117962 -1.228394 -1.195410
-4.100832 -0.761541 2.579181
-4.026262 -0.539444 2.601860
0.179134 -0.411120 -0.424400
-3.930784 1.049520 2.615682
0.615489 1.036863 -1.051330
0.585851 0.136437 -0.543300
1.914673 -0.474170 -0.975270
-3.745580 0.505768 2.680197
-0.841224 0.026549 -0.072118
0.353913 -1.030411 -0.964014
0.976825 -0.100516 -0.667576
-3.796235 -0.528894 2.697905
0.775603 0.576788 -1.102890
0.593890 -0.795758 -0.552504
-3.808599 0.387967 2.640196
0.852303 1.262388 -0.595241
-2.095742 0.273948 0.827521
-0.644383 -1.394400 -0.150050
-1.244546 -0.557465 0.055694
-3.558347 -0.617286 2.686352
-4.037570 0.170381 2.581615
-3.227206 0.660598 2.383520
-0.333389 1.206541 -0.241855
-3.695940 0.172112 2.680127
-3.626925 0.601493 2.632300
-3.970235 0.343029 2.605843
-0.775808 -1.454478 -0.093671
-3.609616 -1.342231 2.655401
1.293022 -0.285590 -0.621188
0.938615 -1.418947 -0.645486
0.400808 -0.268531 -0.482749
0.836539 -0.871338 -0.619749
-3.608014 0.522104 2.659520
-1.393103 -0.194360 0.130137
-3.389804 0.188090 2.515457
0.866438 -1.186934 -0.626379
0.931964 -1.261450 -0.646394
-0.106600 -0.229243 -0.286995
-1.038425 1.459702 -0.008859
-3.907938 0.773961 2.625774
0.295253 0.040960 -0.427948
0.478599 0.738083 -0.478285
-2.788939 0.161322 2.084364
1.138561 0.292755 -0.681893
0.869619 -1.088841 -0.626950
-3.961886 -0.517341 2.602587
-3.292980 0.097399 2.442659
2.247135 -0.093146 -1.063872
0.851095 -0.268921 -0.625301
-4.072280 0.793012 2.588760
1.496620 1.048062 -0.801355
-0.239255 -0.059657 -0.249941
-3.804563 -0.362026 2.675836
-1.440320 0.153645 0.938792
-3.709448 -0.902703 2.681083
-0.683986 0.218363 -0.086815
-3.805926 0.948627 2.621644
-2.175234 -0.591360 1.489619
1.647385 -0.468206 -0.874173
0.009447 -0.154074 -0.358191
-3.752011 -0.436205 2.649789
-0.061979 -0.610560 -0.296821
1.381715 -1.185885 -0.770697
-3.804132 -0.215508 2.679302
0.136108 0.668514 0.383468
1.201006 0.456301 -0.713797
-1.787167 0.846473 0.230646
-3.942159 -0.824736 2.621590
0.971063 0.022692 -0.651860
1.098202 0.682515 -0.685386
-3.703388 -0.721670 2.702798
0.134986 -0.335768 -0.368982
-3.872597 0.017045 2.616665
-3.951655 -0.191025 2.618022
-0.657303 0.522554 0.695011
-3.644291 -0.545701 2.696934
-3.178819 0.007306 2.375679
-1.315967 -1.437756 0.912384
0.857172 -0.878404 -0.569647
-3.698392 1.381759 2.689013
-0.267485 -0.224736 -0.238509
-3.770212 0.734187 2.699225
0.144409 -0.667379 0.399658
-1.044484 -0.102081 0.120882
-1.081578 0.654057 0.844823
0.723313 0.276235 0.251177
-3.460252 0.855059 2.714053
-4.072047 0.680000 2.639258
-3.549268 0.189257 2.656574
-0.033984 -0.039246 -0.846169
-0.607723 -0.289846 -0.620282
0.417578 1.019545 -0.968134
-4.245038 -0.784885 2.570301
-3.968819 1.082684 2.570243
-0.921319 0.601924 0.585527
-0.188524 -0.692862 -0.796986
-3.603420 -1.334323 2.618512
-3.678912 -1.291727 2.657867
-3.665601 0.129587 2.641176
2.471873 0.496807 -1.657255
-3.687872 0.311349 2.688208
0.646336 -0.697428 -0.643783
-3.924705 0.903963 2.573405
1.465592 -0.692478 -1.057364
-3.852865 0.578663 2.587311
0.246627 0.757750 -0.882886
-4.207359 0.325737 2.570580
-2.096110 -0.224897 1.154302
-3.742904 0.724019 2.658410
-0.092815 -0.050851 -0.798242
-1.528683 0.936120 -0.359963
-1.041032 -1.014096 -0.491990
-1.840151 1.453005 1.056811
-0.193085 -1.033072 -0.771795
-1.612689 0.392208 0.202726
-3.864260 1.223191 2.573802
-4.111623 -0.782702 2.570853
-3.503502 -0.757441 2.590863
-0.040728 0.225230 -0.835052
-2.177767 0.181505 0.155389
-3.587179 1.441264 2.653750
0.998874 -1.143573 -1.176170
-4.010259 0.533874 2.571239
-3.640239 1.393289 2.658952
-3.722387 0.873772 2.647529
-0.894368 -1.435168 -0.562650
-3.646761 -0.374459 2.655859
-3.530696 0.796858 2.689402
-2.042981 -0.783151 1.224962
-3.532773 -1.012793 2.654244
-3.087524 0.098089 2.289579
-0.383413 0.761028 -0.222524
-0.993200 1.042006 0.802110
-1.647092 1.165369 0.140244
0.895643 -0.673428 -1.137898
-3.776548 -0.834525 2.671335
2.126994 0.761964 -1.545937
0.946949 -0.906489 -1.111737
-3.857702 1.084317 2.575555
-2.532241 1.433093 1.894837
0.065343 1.008468 -0.606429
-3.626087 -0.489202 2.663516
-1.890805 0.365882 0.261171
-1.105056 1.402923 0.032820
-0.424566 1.379128 -0.703447
-3.857474 0.597249 2.629777
0.106294 0.518339 -0.883075
-3.371060 1.122193 2.478108
1.767036 0.933254 -0.933197
-0.635555 1.438889 -0.137977
-3.564420 -1.393631 2.645328
-3.933948 -0.161983 2.610125
-1.809525 -0.363954 0.232929
1.579572 -0.569419 -1.369984
-1.091006 1.089839 -0.163335
-0.478203 -0.091153 -0.697864
0.698495 -1.448073 -0.590079
0.583705 0.658424 -1.037238
0.171024 -1.461079 -0.431568
-3.544668 0.223659 2.627090
-3.573252 0.671428 2.654010
0.409380 -0.971281 -0.990167
0.141784 -1.111178 -0.399673
-3.830237 0.396952 2.671392
-3.014739 -0.807150 2.238647
0.813906 1.277809 -1.083828
-0.803212 -0.861524 -0.096222
0.121269 0.173440 -0.895722
-1.309706 -0.030609 0.079412
-3.542397 1.345263 2.644322
-3.911392 0.296192 2.578284
-2.183165 -0.425203 1.483786
-0.349239 -0.990872 -0.733629
-3.840736 0.743096 2.625652
-4.012990 0.229478 2.574592
-2.103719 -0.660412 1.298615
-1.454312 0.843252 -0.351680
-3.979973 0.888273 2.583307
-3.223208 -1.406667 2.393671
0.471224 0.151442 -0.956183
-3.969871 1.419402 2.578669
-3.416838 -0.970148 2.549655
-1.484803 1.448760 0.119845
-3.895508 -1.137464 2.626350
0.214510 -0.446370 -0.423463
1.859392 -0.233800 -0.937595
-3.757715 -0.675919 2.714637
-3.871951 -0.033999 2.629979
-3.224258 -0.524052 2.379635
-3.627840 0.245526 2.706278
-3.950006 -0.304021 2.629370
-0.001647 -0.274074 -0.791746
0.223162 -0.062701 -0.420203
-3.800076 0.992418 2.644743
-1.570879 0.900714 0.161658
-4.007904 0.037428 2.602771
-1.337049 -0.886121 0.085283
-1.034897 0.048420 -0.026604
0.806429 0.650015 -1.111868
-1.495257 0.778554 0.137725
-1.767159 0.702246 1.016908
-1.958143 1.133577 0.892229
-0.486902 -1.112600 -0.697672
-1.759175 1.117342 0.210707
0.220076 0.180398 -0.430031
-3.952732 0.764010 2.585748
-3.234556 0.435236 2.411472
-0.774002 0.230519 -0.098032
-2.059395 1.024698 0.665364
-3.372491 0.463588 2.502397
-3.850657 -0.909467 2.630461
0.117126 1.376858 -0.394248
-0.337754 0.122806 -0.232679
0.678847 0.982500 -0.568733
-3.674984 0.841941 2.680584
-3.798495 -0.736229 2.669373
0.452140 0.544536 -0.505631
-4.123776 -0.559748 2.580842
0.161160 -0.238946 -0.403434
-0.675333 -1.404914 -0.110377
-3.640706 -0.072396 2.674257
-3.992181 -0.243725 2.575894
-3.982985 -0.245488 2.617923
-3.901809 0.331058 2.644154
-3.996786 -0.171791 2.576646
-3.745400 -1.435833 2.633073
1.010260 0.345759 -0.680474
-0.162895 0.397560 -0.279381
1.083194 -0.450323 -0.695270
-3.907354 -0.807688 2.648787
0.709917 -0.213014 -0.582352
-4.151245 -1.435711 2.582713
-3.635772 0.173333 2.678637
-3.877367 0.264257 2.617822
1.252446 -0.183590 -0.731026
-1.638581 1.086921 0.174270
-3.782150 -0.403343 2.669156
-0.533037 1.117601 -0.172583
-3.755614 -0.402471 2.695968
-3.538389 0.151744 2.735822
0.789352 -1.165468 -0.557559
-0.342192 1.184613 -0.196884
-4.190520 -1.086136 2.578542
-4.151206 1.136448 2.578906
-0.419716 0.124640 -0.171776
-4.047456 -0.286409 2.586914
-2.999977 0.397828 2.228331
1.512543 -0.635255 -0.803685
0.870678 -0.926297 0.200821
0.063656 -0.411919 -0.354466
0.475903 0.590429 -0.494829
-3.855418 -1.200461 2.639081
1.117383 1.175964 -0.704841
-0.320985 -0.936380 -0.243270
0.768028 0.860844 -0.571981
-3.723831 -1.155378 2.662934
0.853846 1.110432 -0.617134
-1.135496 1.074099 0.816875
-2.019204 -0.555786 0.912004
-4.041308 0.909724 2.595363
-2.687440 -0.142711 2.014427
-1.109910 -0.249332 0.846424
-0.175584 -0.578486 -0.260543
0.875472 1.345873 -0.629817
-1.625288 0.672863 0.233161
-1.680557 -0.630113 0.203085
-3.661427 0.124993 2.686419
0.738864 0.644514 -0.546301
-3.592918 0.323284 2.714261
-0.079879 -0.748088 0.507367
0.265068 0.420041 -0.435763
0.764854 0.508089 -0.576507
-0.535398 -0.438329 -0.166768
1.858834 1.081370 -0.938489
2.643181 1.388946 -1.205295
-3.772516 1.087577 2.670487
0.543688 -0.000684 -0.526792
1.457699 -0.858927 -0.799139
0.008783 -0.563068 0.496685
-3.993737 -0.159820 2.645612
-1.007589 -1.194917 0.805497
1.161450 0.990355 -0.711561
-3.716508 -0.921201 2.721245
2.276667 -0.448428 -1.058666
-0.079540 0.819959 0.206471
0.770154 0.437932 0.252662
1.634738 0.167746 -0.031120
-1.762631 0.227666 1.094046
-3.157496 -0.119554 2.395784
-3.627794 -0.379282 2.736446
0.802673 0.721236 0.239499
-1.300723 1.239906 1.023771
-3.698099 0.041055 2.718597
-3.843568 0.509231 2.682237
-3.934979 0.174814 2.687835
-0.833090 -0.078462 0.838705
-2.596251 1.421336 1.934137
-2.995278 0.872160 2.220215
-3.740484 0.465128 2.671278
0.519559 1.462477 -0.519426
-4.136263 -0.998445 2.570177
0.891604 0.779642 -1.140936
-3.935815 0.830117 2.582035
-3.836605 1.201882 2.591109
-4.128078 -1.353445 2.570117
0.917659 0.632239 -1.136363
-1.589485 0.613562 0.979979
-3.760145 0.780857 2.647173
1.255528 1.246328 -1.262053
-3.792884 -0.763005 2.683500
-3.662070 0.155782 2.604917
-1.757600 0.284125 0.995458
-1.253821 -0.505237 -0.422209
-1.442121 -1.307847 0.133691
1.199304 1.027243 -1.239873
-3.772713 0.166054 2.618184
1.189698 -0.369329 -0.749111
-0.434355 -0.642336 -0.711356
-2.065308 0.668215 0.311452
-2.943263 -1.313845 2.176982
-3.568248 -0.409512 2.621991
-1.790390 -1.004991 0.677949
-3.955221 1.365545 2.575445
1.251896 -1.102743 -1.256704
-4.179416 -0.006261 2.574827
-1.882932 -1.061690 0.251008
-0.333482 -0.168670 -0.738120
-2.003671 -0.284815 -0.208832
1.611521 0.694280 -1.368411
0.215407 0.120957 -0.817881
-3.906532 -1.356411 2.586868
-3.934396 0.752112 2.591314
2.062238 0.227777 -1.029153
0.758863 -0.345071 -1.040976
-3.595788 0.877174 2.624175
0.182243 -0.841568 -0.397618
-1.409128 0.095185 0.128880
0.093099 -1.053371 -0.382912
-3.327543 -0.948199 2.458217
1.233433 0.637624 -1.227613
0.272762 -0.473353 -0.443948
0.833609 1.145883 -1.105338
-3.631404 -1.335975 2.624014
-3.609968 -1.398708 2.672334
0.339548 -0.554426 -0.875414
-2.623627 -0.730631 1.963900
-3.751325 -1.135330 2.611821
-4.083009 0.322651 2.571840
-3.968787 -0.480588 2.597184
-3.815452 0.756523 2.631719
-4.010175 -0.681115 2.571897
-3.720783 0.450372 2.670533
-3.949288 -0.116105 2.609770
-0.753359 0.883766 -0.079185
-3.873703 -0.762677 2.625314
-3.826734 -1.001300 2.607731
-0.359005 -0.565375 -0.730996
-3.985451 -0.318644 2.591306
-3.983936 0.004973 2.603986
0.785712 -0.711976 -1.065766
-4.174544 0.565524 2.576033
-3.365771 -0.528666 2.481321
-3.931669 0.017044 2.615389
-2.079099 0.558244 1.201219
-1.949785 -1.464728 0.278311
-3.136996 0.990414 2.321857
-1.481496 0.767677 0.125939
-3.778023 0.072313 2.581308
0.817411 0.899792 -0.628407
-1.430646 0.289671 0.942637
-3.939069 1.159444 2.593138
-3.832097 -0.689652 2.647332
-4.051038 0.064151 2.614327
0.118229 1.267044 -0.834666
-3.325740 0.845060 2.453845
-0.397836 -0.302320 -0.226866
-0.468010 1.045873 -0.195086
-3.630409 -0.134064 2.667078
2.004446 0.708202 -1.084807
1.244205 0.793118 -0.748544
0.197420 0.414020 -0.893314
-0.421939 -0.100206 -0.681366
-0.054233 0.225172 -0.321367
-3.721377 1.049791 2.676580
-4.038935 -0.448999 2.573188
-3.739591 0.395074 2.670373
-3.488530 0.421922 2.570763
1.057629 0.446169 -0.697337
-3.699974 0.508519 2.659551
-3.837951 0.612180 2.615170
0.068395 -0.699850 -0.373565
0.132323 1.346667 -0.402236
-0.760624 0.365502 -0.598866
-4.111475 0.088362 2.598206
1.146882 -0.836532 -0.722337
-3.605738 -0.741825 2.657495
-3.783878 -0.467156 2.696166
-3.691118 1.285203 2.637197
-3.768346 0.478360 2.668171
-0.852495 -1.383257 -0.084078
0.752048 0.930758 -0.602938
-3.743809 1.003733 2.625219
0.746739 -0.276866 -0.598462
-0.363508 0.225682 -0.726124
0.952235 -1.161173 -0.630002
0.453274 -1.402337 -0.495929
0.348766 0.565306 -0.472592
0.298660 -1.351187 -0.436808
-3.251181 1.283789 2.400938
-1.513587 -0.206010 0.133977
-0.042103 0.861898 -0.337128
1.721528 0.230534 -0.886347
-1.309400 -0.370606 0.073742
-4.024424 -1.128798 2.619452
-0.911815 -1.465601 -0.059457
-3.685557 0.609447 2.677741
-3.923596 -0.546002 2.596006
-3.133841 0.932081 2.320759
-0.177777 -0.328004 -0.292841
-2.268121 0.444688 1.620727
-3.662165 -0.119714 2.661109
-3.984424 0.252745 2.584488
-3.879167 -0.979166 2.609983
-0.370594 -1.028096 -0.228747
-1.320138 -0.184399 0.084117
-3.852010 -0.309698 2.629049
-3.939909 0.812760 2.602390
-3.842219 -1.232327 2.661494
-0.824999 0.793708 -0.061951
2.212440 1.074966 -1.057135
-1.548920 0.238837 0.167086
-0.620633 -1.408527 -0.139232
-3.803817 0.797710 2.675934
-2.539828 -0.794085 1.951593
-0.770996 -0.758530 -0.105992
-4.147420 -1.398631 2.577508
-1.901805 0.864219 1.098170
-2.846184 -1.333468 2.118269
2.065720 -0.649060 -1.017784
-0.631398 1.250890 -0.125661
0.442685 -0.271489 -0.479674
0.564269 -1.085658 -0.525981
-3.802470 -0.246926 2.638463
1.037821 1.263666 -0.681904
0.061855 -0.989160 -0.366280
-0.980478 -0.759901 -0.018519
0.289190 -1.150122 -0.416887
-0.915949 1.042758 0.727618
1.315580 -0.149279 -0.735111
-1.485001 0.880074 0.168077
-3.872106 -0.848969 2.629325
1.250547 0.227090 -0.740846
-3.668641 -1.392351 2.695989
0.830127 1.198410 -0.623874
-3.628906 0.759949 2.678941
-3.600782 -1.267795 2.707757
-2.302033 -1.087642 1.676924
-3.696957 -0.119776 2.706914
0.400256 -1.284843 -0.482263
0.323093 -0.249884 -0.443488
-1.069474 0.408482 0.031754
0.455919 -0.184072 -0.469341
-3.560875 1.342095 2.685611
2.206669 1.355620 -1.045357
-2.216647 0.175627 1.450160
-2.097430 -0.854840 1.342840
-4.137413 -0.623474 2.603723
-1.974691 -0.658220 1.113752
-3.861661 -0.817157 2.676856
-3.772429 0.423879 2.673464
0.417611 0.564121 -0.463305
0.448551 -0.808811 -0.456376
1.538263 0.830202 -0.798240
-0.431616 -0.963761 -0.176398
-0.278105 -0.013772 -0.230916
0.808406 0.907068 -0.581349
-3.730049 0.460300 2.719120
-3.805927 -0.448848 2.743408
-0.809002 -0.717441 -0.066774
0.482689 0.499918 -0.417732
1.073791 1.071225 -0.254409
-0.215946 -0.117168 0.558775
0.516591 -1.193329 -0.508987
-0.557377 1.311800 0.652708
-3.635400 0.584834 2.709647
0.385835 1.292857 -0.066794
0.893446 0.182552 0.198279
-3.867530 0.937680 2.665555
-4.061919 -0.121882 2.602458
0.692250 -1.337453 0.268131
-3.973826 -0.686889 2.668204
-3.865671 1.047477 2.649796
-0.590628 -0.084330 0.688140
-3.795739 -1.227285 2.719967
1.138450 -0.973171 0.122431
-3.639976 0.891139 2.619310
0.177310 -1.385912 -0.911273
0.572569 -0.289346 -0.998996
-3.686275 0.740065 2.667404
-2.992370 -0.806290 2.227022
-4.033739 -0.549097 2.587569
0.116752 0.735173 -0.399924
-3.786501 0.782771 2.594810
1.687881 -1.434851 -1.389190
-4.034521 -0.445593 2.589511
0.162270 -0.816831 -0.909447
0.746663 0.611851 -1.096088
-0.015232 -1.399715 -0.846482
-3.485514 0.599142 2.575584
-3.937231 0.161031 2.579228
-2.370176 -0.286706 1.751954
-1.638484 0.538787 -0.012521
-3.584566 -1.363738 2.661280
-3.699443 -1.399102 2.657435
-0.758458 1.045072 -0.581314
-1.781375 -0.260147 -0.020093
-3.942771 -0.922015 2.589383
-3.699186 0.038162 2.656380
0.295883 0.252956 -0.942329
0.145574 -0.971080 -0.879706
-3.899791 -0.221542 2.586890
-2.310286 1.293543 0.165650
1.405629 -0.995754 -1.311366
-3.724202 0.404468 2.649554
-4.019860 -1.100431 2.620409
-3.619492 1.439598 2.667425
-0.001417 1.023228 -0.840898
-3.997960 -0.319687 2.571323
-3.738385 1.178485 2.646811
-3.903054 0.708927 2.594696
0.180265 -0.489243 -0.408990
-3.739352 -1.062244 2.659130
-0.263638 0.915697 -0.773575
0.082898 -0.200358 -0.488811
-0.150325 -1.001385 -0.786519
0.757899 0.324787 -1.096045
-3.655451 0.076108 2.690401
1.085948 -0.534242 -1.190693
-0.054075 0.258363 -0.348257
-3.782634 0.455410 2.702869
-0.050319 1.414171 -0.346213
-3.304156 -0.028999 2.479168
-2.349946 1.216964 1.711519
1.044449 -0.244461 -1.188468
-1.838867 1.406029 -0.220462
-4.031746 0.467506 2.571946
1.017037 1.240369 -1.177254
-0.115702 1.347835 -0.790085
-3.869121 -0.289991 2.656977
-3.733746 -0.176702 2.604527
-0.036221 -0.872195 -0.836177
-3.852418 -1.006284 2.606955
-3.639622 -0.159788 2.681889
-0.234707 -0.209676 -0.277884
-1.722336 -0.347438 0.518241
0.216106 -0.590345 -0.909433
-0.061609 0.120331 -0.344213
-2.561042 1.209374 1.923972
1.841108 -1.445938 -1.437287
1.124055 0.209873 -0.725258
-4.009942 0.873929 2.572936
-0.049066 0.658048 -0.321019
-2.012730 -0.937838 1.034584
0.281042 0.722580 -0.937262
-3.988235 -0.127831 2.591926
0.458917 -1.456259 -0.487781
0.757162 -1.277690 -0.604813
0.778404 1.357992 -0.604029
-2.728655 0.048330 2.029926
-3.667961 -0.774688 2.679544
-3.947117 1.402665 2.590727
-0.472391 -0.521415 -0.698925
-2.177276 -0.185294 1.468429
-3.862854 1.433943 2.594132
-2.195273 1.394742 1.447664
0.435806 -0.493882 -0.989107
-3.940196 0.364509 2.618787
1.552084 0.936473 -0.826384
0.099916 -1.407269 -0.881534
-3.837589 0.590297 2.667499
-2.215572 -0.158068 1.525445
-0.044169 -0.424385 -0.336011
-0.187989 0.266750 -0.293944
2.008791 0.875024 -1.008194
0.719440 -0.263586 -0.586484
0.420330 -0.229542 -0.491650
0.760198 0.579360 -0.597544
-3.816231 1.437148 2.602126
-4.107882 -1.436682 2.583177
-3.843707 -0.238399 2.619359
0.241980 -1.176250 -0.439165
-3.894724 0.353323 2.620731
-0.158873 -0.706177 -0.300290
-0.080354 -0.689876 -0.321884
-3.460372 1.205701 2.546507
-0.053800 1.463128 -0.341492
-3.148998 -0.011671 2.327222
0.683478 0.637898 -0.550822
-1.738210 -0.129232 1.102013
-3.594662 0.408264 2.691166
-3.971897 1.377756 2.583476
-3.770589 0.974235 2.630601
-3.667440 0.310662 2.715842
-0.011511 -0.603622 -0.347876
-0.574711 -0.257454 -0.161345
-3.557533 -0.676014 2.671911
0.020897 -0.489868 -0.362700
-3.831359 0.145135 2.640687
-1.975932 -0.161545 0.353629
1.080362 1.298147 -0.677665
1.272745 1.002351 -0.743341
-0.238098 -1.465306 -0.261112
0.465457 -0.126951 -0.482090
-3.590706 0.666739 2.686663
0.910923 0.075309 -0.630044
-3.644669 0.483478 2.683152
-4.063246 0.025062 2.578288
-3.982117 -1.340475 2.602715
-3.859774 0.305279 2.658488
-3.805956 1.121977 2.631780
-3.671705 0.267763 2.712648
0.599055 0.815838 -0.526370
-4.182549 -0.208677 2.595559
-3.476784 0.690750 2.694611
1.399858 0.662844 -0.774208
0.050555 -0.911624 -0.361232
-3.826652 -0.300957 2.670075
0.133259 -0.031337 -0.362624
-2.610324 -1.281412 1.957165
-3.899651 -0.207059 2.692561
-0.689190 0.115385 0.689140
-3.290811 1.142508 2.444715
-3.758401 0.613790 2.683637
-0.067627 1.143702 -0.283399
0.628329 1.082127 -0.534382
-3.830518 0.437405 2.697646
-1.056360 1.381699 0.019550
-3.630304 0.153181 2.717097
0.336432 0.601901 -0.427902
-1.487479 1.010438 0.141103
-3.723695 -0.594078 2.702130
-4.053102 1.345817 2.619735
1.773740 0.093453 -0.922550
-3.440583 -0.327500 2.592051
0.334727 -1.210939 -0.431698
-1.061033 1.101865 0.034723
-3.795733 0.391298 2.715560
0.763400 -0.870883 -0.573783
-0.318337 0.739559 -0.213262
-4.261249 -0.302550 2.586806
-3.215957 -1.076069 2.397983
0.458820 -0.917916 -0.481431
-3.433131 0.286901 2.632050
-3.874780 0.355582 2.681485
1.018692 -0.573252 0.189172
-0.172644 -0.406952 -0.249478
0.302004 0.299238 -0.421731
0.303484 -0.420959 0.391715
-3.954475 0.437212 2.631390
0.431834 0.708229 0.357625
-4.082295 -1.021207 2.625288
0.490689 0.623299 0.356195
-3.537577 -1.398289 2.704484
-3.662061 1.319088 2.734775
1.224784 -0.505736 0.103169
-4.124244 0.024339 2.628112
-1.008145 -0.530343 0.852657
-0.942569 0.927110 0.678187
-3.661284 -1.177775 2.643649
-3.752781 0.792610 2.630798
0.061479 0.071040 -0.867429
1.171930 0.871796 -0.746803
0.594399 0.844949 -0.500734
0.522371 -0.859216 -0.938472
-3.798760 0.552847 2.669877
-3.746624 -0.247191 2.645209
1.048022 0.500788 -0.985465
1.235995 0.466257 -1.244872
-4.010189 0.714070 2.570569
-3.991141 -0.014047 2.603429
0.234033 -1.445372 -0.438431
-3.991982 0.721089 2.574016
-4.079858 0.826934 2.573788
0.255934 0.183960 -0.438044
-3.975480 -0.983706 2.571074
-3.638009 -1.115746 2.603269
-0.538639 -0.590443 -0.679246
-3.932392 0.813810 2.573638
-3.895602 0.362788 2.570784
-3.940358 -1.082780 2.647077
-3.631424 -1.352101 2.600154
-3.161564 -0.872138 2.330595
-3.759385 -0.190993 2.628440
-3.143386 -0.857905 2.324643
0.043361 1.065559 -0.846957
-3.143436 1.299255 2.327688
-0.225601 -0.605385 -0.782179
-3.763026 -1.433934 2.602566
-0.176385 -0.931664 -0.289557
0.184158 -0.831287 -0.909615
-0.029700 1.455619 -0.846363
-3.494076 0.775093 2.682724
-3.453048 0.332085 2.611665
-0.852268 -1.447191 -0.579621
-3.871499 -0.895835 2.645690
-3.627558 1.418702 2.661903
-4.237209 0.326085 2.571466
-2.769978 0.597315 2.065388
1.669297 -0.205427 -1.385016
-3.991848 -1.307736 2.571639
-3.863491 -0.453100 2.704126
-1.512127 0.808607 -0.364946
0.093625 1.196978 -0.843883
-3.630067 0.857853 2.643061
1.235150 0.886840 -1.226261
-3.597771 0.659901 2.634092
-3.965166 -0.701356 2.610248
-1.980426 0.873941 0.285332
0.883595 -1.077873 -1.145823
-3.506476 -0.107145 2.611288
-0.447936 -1.436583 -0.691160
-1.389909 0.663430 0.663784
-2.267817 0.572008 1.617128
-3.771054 0.144258 2.627074
-0.082734 -1.466300 -0.825594
-3.754516 0.260056 2.653764
-2.445256 0.735588 1.829416
-0.625605 -0.863410 -0.170396
-0.696912 -1.324971 -0.020574
-3.962129 1.254232 2.607936
-1.425947 -0.195942 0.106431
1.361810 -0.189940 -0.952693
-0.221282 -0.191293 -0.282109
-4.069190 0.486320 2.573152
-4.272507 -0.348309 2.573137
-1.153340 -1.015956 0.032284
-0.015775 0.463017 -0.844263
0.132058 -1.037586 -0.899187
-1.943467 0.643392 1.092922
-0.251824 -0.658191 -0.765835
-1.615015 0.331895 0.163725
-3.998766 -0.615662 2.573210
-1.665737 -0.377289 -0.312117
-3.671351 0.874482 2.662437
-1.053668 0.655034 -0.511378
1.109107 0.909649 -0.719840
-0.882215 -0.865501 -0.074781
-3.681839 -0.071016 2.665486
-3.710933 0.772498 2.705279
-3.631360 0.807376 2.625217
-0.697754 -1.426880 -0.125991
0.300227 -0.150942 -0.449008
-3.974956 -0.941378 2.579445
0.349834 -0.826097 -0.966600
-3.671402 -0.476133 2.693122
0.621308 0.441585 -0.540639
-4.334236 -0.874559 2.574775
-3.735305 0.751285 2.670901
1.100371 1.392242 -0.710096
-4.195836 -0.582978 2.580409
-3.257485 -0.472286 2.407416
-0.477267 0.970324 -0.198001
-3.695439 -0.871320 2.666291
-3.747885 -0.821177 2.682786
-0.205748 -1.467189 -0.285273
-3.769419 0.929725 2.644442
1.166468 -0.274141 -0.738956
0.663084 1.258849 -0.568657
-0.036766 0.292066 -0.826469
0.885687 -0.262320 -0.649130
0.470657 1.423534 -0.437528
-0.665400 1.460275 -0.133368
-4.206655 0.006270 2.575544
-3.842928 -0.949403 2.621880
0.127698 0.320999 -0.383290
-3.936759 -0.947083 2.585767
-0.235502 -1.199914 -0.282850
-3.681834 0.956342 2.700957
-4.017569 -0.645785 2.575876
0.403815 -0.699419 -0.472415
-0.517691 1.391339 -0.164246
-0.843580 0.107270 -0.071494
1.128890 -0.953989 -0.711654
0.921034 -0.136418 -0.654816
-2.059445 -0.852327 0.846293
-3.840755 -0.479509 2.708552
-3.830998 -0.253552 2.651632
-3.682445 -0.672187 2.682835
-4.155118 -0.291506 2.577122
1.215522 0.950002 -0.721144
-3.753045 -1.404600 2.627514
1.025151 0.236662 -0.648839
-3.975598 1.113391 2.624450
-0.468253 1.352296 -0.190072
1.141102 0.439912 -0.710748
1.145760 0.062760 -0.725197
1.309918 -1.279799 -0.778504
-3.833679 0.103544 2.626252
-3.710325 0.124997 2.714515
-3.949032 -0.722828 2.639887
-3.614970 -0.296669 2.719488
-4.033091 0.233911 2.596256
-3.483597 1.285765 2.618002
-0.225361 1.102267 -0.247172
-3.750406 1.018417 2.667133
0.822413 -0.799122 -0.608182
0.051654 -1.137635 -0.304855
-1.453328 0.257244 0.151519
-0.163196 1.431598 -0.290159
0.870753 -0.596686 -0.632359
0.520429 -1.385947 -0.465844
0.516220 -0.970308 -0.504763
1.604032 0.001203 -0.860113
-0.698421 1.395970 -0.123847
-1.094611 1.453204 0.836852
-3.883605 -0.077054 2.651148
-3.593624 0.085248 2.724596
-0.486888 -1.255978 -0.149654
0.101782 -0.265624 -0.372923
-2.558952 1.368358 1.921954
0.578382 -1.386552 -0.516638
-4.009998 -1.301250 2.593480
-0.201650 -1.315956 -0.275816
-0.226259 0.102802 -0.252383
0.778844 -1.005794 -0.588596
-3.989867 -1.411890 2.623020
-2.133738 1.056147 1.437852
-3.946776 -1.018906 2.651731
0.064289 0.444357 -0.146417
0.213980 -0.632435 -0.403588
0.651947 1.385464 -0.495728
-4.029469 1.068562 2.606244
-0.878210 0.902834 0.804025
-4.004571 -1.068817 2.661818
-3.706223 -0.839392 2.720975
0.442254 0.797068 0.367685
-0.098771 -0.785942 -0.269026
0.248956 0.238125 -0.411763
-4.006994 0.850425 2.625996
-3.767008 -1.318956 2.679107
-0.218828 1.285195 0.569032
-0.569187 -1.002362 0.700597
-1.337412 -0.809139 0.943596
-3.738890 -0.151377 2.751203
1.215978 -0.843612 0.125376
-4.260362 0.658298 2.570127
-1.047809 -0.943597 -0.037520
-0.480064 0.352331 -0.682601
-2.263533 0.475261 1.593257
-3.985273 -1.343935 2.570500
-3.807688 0.645849 2.615972
-3.643967 -0.766649 2.677725
-2.064819 0.250572 0.554387
-1.195421 -1.198152 0.027867
0.137250 -0.024017 -0.891701
-3.940721 -0.117852 2.626743
-3.552495 -0.749180 2.662641
-0.044735 -1.439925 -0.347139
-3.184707 0.662171 2.360192
0.620192 0.764671 -1.031391
-2.759531 1.324924 2.054334
-0.088367 0.104073 -0.815023
-1.032758 -1.278035 -0.515233
-2.590729 -0.778622 1.929948
-3.779482 0.486658 2.696686
-1.661297 0.722914 0.181742
-3.733340 0.991539 2.600148
-3.505083 1.148558 2.593816
1.261776 -0.461966 -1.262259
-3.907404 -1.441391 2.600398
0.129667 0.858235 -0.872868
-4.095306 -1.159161 2.573932
-1.316303 0.361919 0.105313
-3.599385 -0.364801 2.633474
-3.183107 -0.436947 2.345472
0.983338 0.004710 -0.683455
